ply
format ascii 1.0
element vertex 1462
property float x
property float y
property float z
property uchar red
property uchar green
property uchar blue
property uchar alpha
end_header
252 444 -568.182 138 149 176 255
252 448 -778.802 193 200 217 255
252 532 -835.616 219 201 206 255
252 536 -837.563 193 181 197 255
252 540 -800 153 155 170 255
252 580 -758.794 199 175 175 255
256 12 -622.12 176 192 217 255
256 16 -582.938 167 184 211 255
256 92 -289.34 127 159 197 255
256 96 -566.82 170 181 217 255
256 100 -903.226 240 236 248 255
256 104 -919.028 243 237 247 255
256 108 -717.073 176 182 205 255
256 188 -774.011 164 157 177 255
256 192 -788.462 196 186 208 255
256 196 -900.415 231 229 241 255
256 200 -813.333 204 204 225 255
256 204 -775.148 150 158 169 255
256 220 -773.81 149 155 168 255
256 360 -641.619 142 147 173 255
256 364 -641.619 142 149 173 255
256 448 -588.235 135 146 170 255
256 748 -811.111 180 163 164 255
260 32 -641.304 151 164 184 255
260 52 -618.09 199 164 161 255
260 96 -470.27 136 145 185 255
260 100 -771.69 194 196 219 255
260 104 -741.627 182 186 209 255
260 152 -801.242 145 147 161 255
260 192 -885.714 173 165 175 255
260 196 -785.366 183 184 205 255
260 200 -780.347 154 157 173 255
260 232 -617.486 148 166 183 255
260 352 -666.667 145 152 174 255
260 360 -714.286 174 180 203 255
260 364 -836.91 214 216 233 255
260 372 -701.149 148 152 174 255
260 536 -712.575 143 156 167 255
260 708 -755.102 196 173 172 255
260 748 -871.658 177 175 187 255
260 760 -827.161 162 148 156 255
264 32 -682.051 164 175 195 255
264 52 -741.071 224 195 196 255
264 56 -690.608 181 153 157 255
264 64 -763.158 201 207 228 255
264 68 -715.596 187 198 218 255
264 140 -616.279 139 152 172 255
264 192 -772.455 167 148 159 255
264 328 -814.815 147 148 162 255
264 360 -681.818 148 156 176 255
264 364 -672.131 153 160 183 255
264 372 -730.769 180 186 208 255
264 376 -701.031 165 173 194 255
264 396 -658.823 170 143 141 255
264 432 -817.073 151 149 164 255
264 516 -621.622 150 162 185 255
268 192 -814.208 172 166 183 255
268 324 -757.576 145 149 165 255
268 372 -558.011 141 160 181 255
268 376 -652.695 138 148 167 255
268 504 -635.468 166 184 203 255
268 516 -717.073 176 186 205 255
268 568 -663.158 158 168 190 255
272 384 -795.181 154 149 166 255
272 388 -815.385 178 177 195 255
272 556 -719.807 178 190 207 255
276 100 -793.478 184 168 165 255
276 348 -750 161 163 184 255
276 352 -865.031 163 152 162 255
276 360 -615.385 208 170 168 255
276 364 -773.196 194 172 183 255
280 320 -731.707 142 147 164 255
280 336 -775.401 166 172 187 255
280 352 -750 168 147 147 255
280 356 -471.698 212 173 156 255
280 360 -785.714 252 228 225 255
280 364 -662.447 237 203 197 255
280 444 -621.302 137 149 169 255
284 312 -741.071 195 205 224 255
284 316 -654.822 163 174 197 255
284 356 -485.437 206 168 153 255
284 360 -742.972 249 226 217 255
284 364 -491.228 228 189 170 255
284 396 -768.421 168 174 190 255
284 444 -753.304 199 208 227 255
288 56 -803.681 147 148 163 255
288 360 -434.146 205 156 147 255
288 364 -470.899 189 148 139 255
288 416 -779.07 153 156 172 255
296 384 -695.906 145 154 171 255
296 472 -592.417 168 186 211 255
296 476 -465.241 137 156 187 255
296 540 -754.601 143 149 163 255
300 236 -421.053 135 160 190 255
300 240 -712.963 185 192 216 255
300 372 -647.059 140 151 170 255
300 428 -719.298 147 155 171 255
300 468 -522.843 150 169 197 255
300 472 -700 187 196 220 255
300 616 -719.807 178 190 207 255
300 656 -714.286 162 173 189 255
304 232 -370.166 124 147 181 255
304 236 -620.853 171 186 211 255
304 240 -873.95 224 223 238 255
304 244 -470.27 136 160 185 255
304 388 -790.123 147 145 162 255
304 468 -775.862 206 214 232 255
304 472 -692.308 187 202 221 255
304 484 -825.137 167 168 183 255
304 588 -764.706 150 153 170 255
308 72 -783.505 194 173 175 255
308 240 -534.091 135 151 176 255
308 316 -648.352 150 162 182 255
308 420 -612.903 150 163 186 255
308 440 -690.141 213 184 180 255
308 468 -459.459 135 158 185 255
308 472 -600 140 151 175 255
308 712 -865.385 208 194 204 255
308 716 -831.325 166 153 152 255
312 440 -656.863 204 173 169 255
316 332 -748.634 183 163 160 255
316 356 -727.811 146 150 169 255
316 360 -715.736 169 171 197 255
316 368 -737.143 152 156 175 255
316 400 -590.244 163 180 205 255
316 404 -784.753 199 204 223 255
316 500 -898.305 176 168 177 255
316 504 -843.373 166 153 157 255
316 548 -647.727 176 145 148 255
316 668 -760 175 154 162 255
316 672 -847.826 177 170 184 255
316 688 -358.289 127 152 187 255
316 692 -559.322 138 151 177 255
320 360 -675.127 165 175 197 255
320 364 -765.766 196 202 222 255
320 396 -500 135 148 180 255
320 400 -644.231 171 183 208 255
320 404 -675.127 165 172 197 255
320 428 -595.376 138 153 173 255
320 432 -628.743 136 148 167 255
320 548 -690.608 181 153 156 255
320 668 -848.649 185 171 175 255
320 684 -311.475 120 148 183 255
320 688 -831.224 217 220 237 255
320 692 -831.224 217 220 237 255
324 92 -777.778 200 206 225 255
324 96 -804.444 203 203 225 255
324 100 -811.518 173 173 191 255
324 396 -671.362 178 189 213 255
324 400 -636.364 171 184 209 255
324 520 -815.029 157 158 173 255
324 564 -693.122 189 161 160 255
324 684 -382.979 130 158 188 255
324 688 -714.286 192 204 224 255
324 692 -745.455 192 200 220 255
328 92 -533.333 138 155 180 255
328 96 -798.942 178 170 189 255
328 100 -849.765 213 197 213 255
328 132 -664.865 154 163 185 255
328 136 -769.585 192 199 217 255
328 196 -616.279 139 153 172 255
328 272 -663.043 153 163 184 255
328 292 -750 189 196 216 255
328 296 -762.557 193 199 219 255
328 384 -735.16 190 198 219 255
328 388 -628.866 158 168 194 255
328 396 -567.839 156 172 199 255
328 400 -602.094 153 165 191 255
328 500 -851.163 205 199 215 255
328 504 -689.655 147 155 174 255
328 520 -643.243 152 167 185 255
328 564 -797.357 227 204 206 255
328 688 -756.345 173 176 197 255
328 692 -846.154 184 180 195 255
332 100 -751.244 180 176 201 255
332 104 -815.789 210 207 228 255
332 108 -500 132 155 176 255
332 292 -692.308 165 171 195 255
332 296 -632.184 142 149 174 255
332 352 -691.429 175 148 150 255
332 384 -570.621 139 150 177 255
332 396 -728.155 178 184 206 255
332 412 -555.556 161 188 207 255
332 416 -283.422 120 161 187 255
332 420 -557.692 162 182 208 255
332 424 -536.842 146 167 190 255
332 428 -673.077 174 186 208 255
332 432 -679.612 173 185 206 255
332 436 -717.514 152 157 177 255
332 440 -652.632 157 169 190 255
332 692 -836.478 148 146 159 255
332 748 -709.497 153 163 179 255
336 68 -717.073 205 179 176 255
336 100 -651.282 161 171 195 255
336 104 -838.298 216 219 235 255
336 108 -626.263 161 177 198 255
336 176 -529.412 187 154 143 255
336 180 -628.866 194 163 158 255
336 244 -530.726 137 153 179 255
336 264 -557.895 148 165 190 255
336 268 -761.194 177 183 201 255
336 352 -688.623 167 145 141 255
336 356 -873.563 174 163 172 255
336 396 -636.364 144 151 176 255
336 400 -545.946 143 154 185 255
336 404 -686.275 172 182 204 255
336 408 -557.692 162 182 208 255
336 412 -542.601 172 191 223 255
336 416 -529.412 169 194 221 255
336 420 -537.037 166 195 216 255
336 424 -447.619 152 191 210 255
336 428 -647.059 182 202 221 255
336 432 -595.855 154 170 193 255
336 436 -653.631 148 155 179 255
336 448 -620.69 141 149 174 255
336 452 -615.819 143 155 177 255
336 560 -773.81 149 153 168 255
336 584 -711.538 178 189 208 255
336 588 -790.476 188 192 210 255
336 776 -645.933 209 173 172 255
340 244 -611.94 162 180 201 255
340 268 -690.608 153 165 181 255
340 352 -674.419 172 146 144 255
340 356 -803.922 194 184 204 255
340 368 -817.143 168 159 175 255
340 372 -770.492 168 162 183 255
340 392 -597.765 143 160 179 255
340 396 -604.278 150 158 187 255
340 400 -448.649 134 156 185 255
340 404 -516.588 160 180 211 255
340 408 -486.726 168 196 226 255
340 412 -575.758 182 204 231 255
340 416 -632.479 191 207 234 255
340 420 -523.81 176 207 231 255
340 424 -179.724 128 192 217 255
340 428 -207.921 122 184 202 255
340 432 -285.714 117 161 182 255
340 436 -452.514 130 154 179 255
340 440 -577.889 157 170 199 255
340 444 -652.632 157 163 190 255
340 560 -711.34 166 177 194 255
340 584 -708.108 158 166 185 255
340 776 -627.273 220 189 179 255
344 72 -661.017 147 157 177 255
344 352 -653.465 202 167 172 255
344 356 -806.122 190 177 196 255
344 360 -929.412 164 167 170 255
344 372 -817.143 159 159 175 255
344 376 -752.688 170 163 186 255
344 384 -638.298 154 162 188 255
344 388 -528.736 133 152 174 255
344 392 -750 189 199 216 255
344 396 -787.611 203 202 226 255
344 400 -652.582 176 184 213 255
344 404 -525.114 167 188 219 255
344 408 -686.441 199 214 236 255
344 412 -812.245 222 227 245 255
344 416 -851.852 225 226 243 255
344 420 -769.547 215 222 243 255
344 424 -205.24 138 198 229 255
344 428 -69.7674 115 191 215 255
344 432 -88.0829 105 172 193 255
344 436 -315.217 121 159 184 255
344 440 -798.246 205 210 228 255
344 444 -872.34 221 220 235 255
344 448 -483.146 132 154 178 255
344 452 -614.973 151 164 187 255
344 488 -600 152 171 190 255
344 652 -754.19 179 157 161 255
344 656 -760 175 154 160 255
344 704 -696.335 162 169 191 255
344 708 -656.566 164 179 198 255
348 52 -858.065 155 144 152 255
348 312 -731.707 142 149 164 255
348 344 -483.146 178 141 132 255
348 348 -663.366 202 172 168 255
348 352 -746.725 229 200 205 255
348 356 -671.642 201 168 174 255
348 360 -791.908 173 155 168 255
348 364 -862.5 149 150 160 255
348 368 -884.615 147 148 156 255
348 384 -754.717 186 188 212 255
348 388 -680.851 158 166 188 255
348 392 -551.913 142 168 183 255
348 396 -828.054 202 202 221 255
348 400 -796.61 212 212 236 255
348 404 -603.375 190 211 237 255
348 408 -871.486 233 235 249 255
348 412 -976.378 252 251 254 255
348 416 -944 246 243 250 255
348 420 -755.274 212 208 237 255
348 424 -246.753 144 194 231 255
348 428 -118.182 123 194 220 255
348 432 -215.686 124 182 204 255
348 436 -507.853 144 168 191 255
348 440 -722.488 180 186 209 255
348 444 -689.119 163 170 193 255
348 452 -672.131 153 161 183 255
348 604 -742.69 171 149 150 255
352 16 -709.497 153 161 179 255
352 256 -508.571 132 144 175 255
352 260 -649.718 146 155 177 255
352 284 -688.889 152 159 180 255
352 288 -782.609 171 164 184 255
352 292 -714.286 156 158 182 255
352 296 -792.35 164 164 183 255
352 340 -750 176 157 154 255
352 344 -646.465 198 172 163 255
352 348 -644.068 236 198 194 255
352 352 -729.084 251 219 217 255
352 356 -621.849 238 197 193 255
352 360 -609.302 215 173 187 255
352 364 -755.556 169 158 180 255
352 368 -743.316 163 165 187 255
352 372 -812.207 197 193 213 255
352 376 -782.609 176 164 184 255
352 384 -739.13 165 160 184 255
352 388 -694.118 144 148 170 255
352 392 -584.27 141 165 178 255
352 396 -600 168 192 210 255
352 400 -677.966 198 214 236 255
352 404 -689.796 207 220 245 255
352 408 -896 237 238 250 255
352 412 -1000 255 255 255 255
352 416 -976.378 252 251 254 255
352 420 -836.066 230 224 244 255
352 424 -476.395 172 200 233 255
352 428 -463.203 169 204 231 255
352 432 -457.944 156 193 214 255
352 436 -407.407 133 168 189 255
352 440 -606.557 147 156 183 255
352 492 -600 136 147 170 255
352 496 -776.471 153 151 170 255
352 560 -598.039 204 174 163 255
352 564 -715.447 246 217 211 255
352 568 -514.124 177 142 134 255
352 604 -750 224 197 196 255
352 608 -661.017 177 149 147 255
356 16 -630.058 141 156 173 255
356 256 -841.004 220 221 239 255
356 260 -545.946 143 160 185 255
356 280 -733.333 143 148 165 255
356 284 -655.172 144 155 174 255
356 288 -842.105 211 210 228 255
356 292 -694.581 172 183 203 255
356 320 -810.127 158 143 156 255
356 324 -753.086 162 142 151 255
356 332 -828.221 163 149 149 255
356 336 -867.47 166 161 155 255
356 340 -880.435 184 173 181 255
356 344 -797.101 207 186 187 255
356 348 -745.02 251 220 219 255
356 352 -929.412 255 249 246 255
356 356 -850.98 255 240 236 255
356 360 -772.358 246 218 227 255
356 364 -778.846 208 185 201 255
356 368 -821.782 196 184 202 255
356 372 -854.545 213 204 220 255
356 376 -802.956 194 183 203 255
356 380 -721.212 165 142 159 255
356 396 -502.646 142 169 189 255
356 400 -405.405 156 194 222 255
356 404 -471.862 170 197 231 255
356 408 -807.531 217 216 239 255
356 412 -936 244 242 250 255
356 416 -884.298 230 228 242 255
356 420 -676.856 192 194 229 255
356 424 -223.744 134 188 219 255
356 428 -409.091 155 193 220 255
356 432 -163.043 107 160 184 255
356 492 -836.91 214 217 233 255
356 496 -750 168 172 192 255
356 560 -480.663 181 151 134 255
356 564 -540.541 222 186 171 255
360 256 -602.094 153 163 191 255
360 284 -623.529 138 153 170 255
360 288 -776.699 183 187 206 255
360 292 -691.489 159 169 188 255
360 328 -773.81 168 149 158 255
360 332 -851.485 198 187 202 255
360 336 -849.246 199 184 195 255
360 340 -880.597 201 189 200 255
360 344 -684.211 209 176 184 255
360 348 -717.742 248 213 213 255
360 352 -898.039 255 245 242 255
360 356 -793.651 252 228 226 255
360 360 -710.744 242 207 216 255
360 364 -785.366 205 183 195 255
360 368 -839.08 173 160 174 255
360 372 -864.198 158 151 162 255
360 376 -865.854 159 153 164 255
360 396 -523.81 144 170 189 255
360 400 -542.601 172 198 223 255
360 404 -366.071 153 189 224 255
360 408 -563.319 179 192 229 255
360 412 -686.441 199 207 236 255
360 416 -605.263 183 195 228 255
360 420 -295.775 138 177 213 255
360 424 -9.70868 104 168 206 255
360 428 -76.9231 105 156 195 255
360 476 -694.915 150 160 177 255
360 688 -666.667 175 188 210 255
364 268 -627.119 144 153 177 255
364 280 -744.444 164 157 180 255
364 284 -542.553 145 168 188 255
364 288 -678.899 183 197 218 255
364 292 -629.268 167 183 205 255
364 324 -820.106 173 172 189 255
364 332 -853.659 164 152 163 255
364 336 -841.463 164 151 151 255
364 340 -890.909 165 156 161 255
364 344 -685.864 191 161 171 255
364 348 -649.573 234 193 203 255
364 352 -709.677 248 212 218 255
364 356 -636.364 231 189 194 255
364 360 -643.193 213 175 192 255
364 364 -832.402 175 164 179 255
364 368 -821.656 150 143 157 255
364 380 -757.576 147 145 165 255
364 384 -680.473 142 143 169 255
364 388 -724.868 165 163 189 255
364 392 -661.017 147 152 177 255
364 396 -541.177 131 149 170 255
364 400 -494.624 139 166 186 255
364 404 -581.818 174 196 220 255
364 408 -378.995 151 189 219 255
364 412 -448.889 163 197 225 255
364 416 -170.507 127 182 217 255
364 420 -10.2041 99 156 196 255
364 452 -790.909 197 204 220 255
364 456 -735.849 184 195 212 255
364 476 -642.857 138 149 168 255
364 688 -632.653 160 172 196 255
368 36 -744.444 180 157 157 255
368 280 -668.508 151 164 181 255
368 284 -568.627 160 182 204 255
368 288 -711.79 196 205 229 255
368 292 -632.287 182 202 223 255
368 296 -394.872 136 183 195 255
368 300 -377.049 126 174 183 255
368 336 -938.272 162 157 162 255
368 340 -870.588 168 159 170 255
368 344 -771.739 184 163 181 255
368 348 -775.701 214 190 212 255
368 352 -806.723 238 215 230 255
368 356 -816.514 218 198 216 255
368 360 -800.948 202 190 211 255
368 364 -806.122 177 177 196 255
368 368 -793.478 169 165 184 255
368 376 -759.036 147 146 166 255
368 380 -680.851 160 158 188 255
368 384 -788.018 195 194 217 255
368 388 -883.817 230 227 241 255
368 392 -668.293 171 178 205 255
368 400 -526.012 132 150 173 255
368 404 -400 133 172 190 255
368 408 -560 156 180 200 255
368 412 -598.086 167 188 209 255
368 416 -253.886 121 170 193 255
368 452 -621.053 154 169 190 255
368 536 -683.06 154 167 183 255
368 668 -747.368 190 166 169 255
368 716 -670.455 176 147 151 255
372 0 -597.884 151 166 189 255
372 136 -645.161 153 165 186 255
372 264 -800 170 153 168 255
372 268 -849.711 161 160 173 255
372 276 -523.316 147 168 193 255
372 280 -693.694 188 199 222 255
372 284 -685.589 193 202 229 255
372 288 -788.136 211 214 236 255
372 292 -589.744 186 210 234 255
372 296 -429.825 163 208 228 255
372 300 -296.296 140 202 216 255
372 304 -405.128 137 188 195 255
372 308 -547.619 130 161 168 255
372 336 -782.857 164 156 175 255
372 340 -809.524 166 152 168 255
372 344 -806.452 186 168 186 255
372 348 -847.534 220 206 223 255
372 352 -908.333 240 229 240 255
372 356 -797.357 215 204 227 255
372 360 -853.448 216 215 232 255
372 364 -735.294 177 182 204 255
372 368 -708.108 158 166 185 255
372 372 -645.714 144 153 175 255
372 376 -715.736 169 169 197 255
372 380 -666.667 160 163 192 255
372 384 -616.162 160 167 198 255
372 388 -576.923 164 178 208 255
372 392 -430.108 133 154 186 255
372 404 -569.767 135 158 172 255
372 408 -701.657 154 167 181 255
372 412 -613.636 142 165 176 255
372 468 -576.087 145 163 184 255
376 0 -892.562 229 231 242 255
376 136 -647.059 154 168 187 255
376 260 -803.468 156 156 173 255
376 264 -839.572 187 172 182 255
376 268 -814.433 177 176 194 255
376 272 -502.439 154 175 205 255
376 276 -605.505 175 192 218 255
376 280 -813.559 214 215 236 255
376 284 -859.504 225 225 242 255
376 288 -902.834 240 235 247 255
376 292 -834.711 227 222 242 255
376 296 -655.462 197 208 238 255
376 300 -321.888 154 209 233 255
376 304 -277.778 138 203 216 255
376 308 -386.243 131 179 189 255
376 336 -838.509 158 148 161 255
376 340 -830.846 198 184 201 255
376 344 -764.151 212 187 201 255
376 348 -773.109 238 211 223 255
376 352 -762.295 244 215 226 255
376 356 -745.455 220 192 211 255
376 360 -809.091 209 199 220 255
376 364 -745.283 185 191 212 255
376 368 -647.059 154 164 187 255
376 372 -652.174 152 157 184 255
376 376 -660.194 171 175 206 255
376 380 -605.769 167 174 208 255
376 384 -661.692 167 170 201 255
376 388 -525.773 148 159 194 255
376 392 -502.538 148 164 197 255
376 396 -430.168 128 147 179 255
376 452 -668.293 171 181 205 255
376 464 -577.143 138 149 175 255
376 468 -524.862 138 157 181 255
376 636 -768.786 153 157 173 255
376 728 -577.32 153 163 194 255
380 52 -794.595 185 166 176 255
380 56 -796.791 187 168 183 255
380 60 -684.783 156 155 184 255
380 260 -848.101 148 146 158 255
380 268 -536.723 136 167 177 255
380 272 -439.252 154 190 214 255
380 276 -610.39 186 205 231 255
380 280 -825.726 220 224 241 255
380 284 -952.191 251 245 251 255
380 288 -976.471 255 252 254 255
380 292 -935.743 249 241 248 255
380 296 -765.69 219 211 239 255
380 300 -412.766 166 206 235 255
380 304 -318.584 149 206 226 255
380 308 -635.514 175 199 214 255
380 312 -728.814 153 162 177 255
380 328 -836.478 159 146 152 255
380 336 -754.19 170 157 179 255
380 340 -798.077 202 187 208 255
380 344 -770.213 235 208 222 255
380 348 -874.016 254 238 240 255
380 352 -937.255 255 247 248 255
380 356 -824 250 228 235 255
380 360 -855.932 236 219 235 255
380 364 -846.154 222 216 234 255
380 368 -822.222 208 205 225 255
380 372 -730.769 180 181 208 255
380 376 -732.719 189 188 217 255
380 380 -831.933 220 218 238 255
380 384 -838.983 222 217 236 255
380 388 -807.018 208 206 228 255
380 392 -839.662 221 218 237 255
380 396 -621.891 163 172 201 255
380 412 -752.809 156 158 178 255
380 420 -712.575 143 147 167 255
380 452 -611.65 166 179 206 255
380 460 -572.917 151 163 192 255
380 564 -834.395 155 144 157 255
380 580 -542.289 155 173 201 255
380 584 -569.061 142 150 181 255
380 592 -636.364 153 161 187 255
380 596 -617.978 144 155 178 255
380 724 -475.248 149 172 202 255
380 728 -893.878 235 232 245 255
380 732 -558.823 159 179 204 255
384 48 -798.742 149 143 159 255
384 52 -854.701 234 217 227 255
384 56 -866.667 240 224 235 255
384 60 -856.54 227 220 237 255
384 64 -769.911 200 206 226 255
384 108 -809.524 189 171 173 255
384 112 -798.165 218 196 196 255
384 224 -634.518 161 178 197 255
384 264 -936.709 156 153 158 255
384 268 -755.102 172 186 196 255
384 272 -685.589 193 210 229 255
384 276 -685.95 204 221 242 255
384 280 -894.737 234 236 247 255
384 284 -976.471 255 252 253 255
384 288 -1000 255 255 255 255
384 292 -992.126 254 253 254 255
384 296 -858.921 240 224 241 255
384 300 -685.106 198 212 235 255
384 304 -731.602 200 218 231 255
384 308 -776.786 199 211 224 255
384 312 -790 179 182 200 255
384 316 -797.753 178 160 177 255
384 320 -737.143 175 152 161 255
384 336 -741.573 165 155 178 255
384 340 -803.738 205 193 214 255
384 344 -807.531 239 216 231 255
384 348 -865.079 252 235 238 255
384 352 -898.039 255 242 243 255
384 356 -751.037 241 211 223 255
384 360 -740.741 211 188 216 255
384 364 -829.787 216 215 235 255
384 368 -867.22 226 225 241 255
384 372 -792.208 210 207 231 255
384 376 -745.614 202 199 228 255
384 380 -935.484 244 240 248 255
384 384 -927.125 241 238 247 255
384 388 -828.326 213 214 233 255
384 392 -766.816 197 201 223 255
384 396 -577.32 153 166 194 255
384 408 -568.182 138 151 176 255
384 412 -807.339 197 197 218 255
384 420 -632.184 142 152 174 255
384 460 -769.911 200 206 226 255
384 464 -673.469 164 172 196 255
384 500 -683.168 170 182 202 255
384 516 -595.628 146 153 183 255
384 576 -376.344 128 149 186 255
384 580 -877.049 229 230 244 255
384 584 -819.742 212 217 233 255
384 728 -718.182 189 198 220 255
384 732 -541.899 138 153 179 255
388 52 -837.838 185 170 183 255
388 56 -821.053 189 173 190 255
388 60 -801.887 191 191 212 255
388 64 -651.282 161 174 195 255
388 268 -488.372 128 164 172 255
388 272 -539.906 164 198 213 255
388 276 -483.051 175 210 236 255
388 280 -758.333 211 216 240 255
388 284 -928.287 251 242 249 255
388 288 -984.314 255 253 254 255
388 292 -926.829 246 237 245 255
388 296 -735.043 216 203 234 255
388 300 -398.23 158 200 226 255
388 304 -558.559 173 203 222 255
388 308 -460 146 188 200 255
388 340 -717.277 168 164 191 255
388 344 -768.116 207 183 205 255
388 348 -706.897 232 198 209 255
388 352 -709.402 234 200 214 255
388 356 -695.238 210 178 206 255
388 360 -678.049 178 172 205 255
388 364 -601.896 169 181 211 255
388 368 -718.062 195 200 227 255
388 372 -841.667 221 223 240 255
388 376 -666.667 185 192 222 255
388 380 -785.408 208 211 233 255
388 384 -737.991 199 205 229 255
388 388 -783.55 206 210 231 255
388 392 -641.509 174 190 212 255
388 396 -587.302 150 166 189 255
388 456 -635.359 148 158 181 255
388 460 -624.365 160 173 197 255
388 580 -588.517 166 184 209 255
388 584 -457.627 129 148 177 255
392 264 -724.138 150 153 174 255
392 272 -363.184 137 189 201 255
392 276 -424.893 166 206 233 255
392 280 -704.641 202 209 237 255
392 284 -790.795 226 214 239 255
392 288 -852.459 236 226 244 255
392 292 -751.073 213 204 233 255
392 296 -513.274 171 196 226 255
392 300 -260.274 138 189 219 255
392 304 -402.844 148 183 211 255
392 308 -329.787 125 171 188 255
392 340 -762.376 178 182 202 255
392 344 -785.047 203 191 214 255
392 348 -738.693 194 173 199 255
392 352 -726.829 203 177 205 255
392 356 -736.364 203 191 220 255
392 360 -798.246 206 205 228 255
392 364 -788.546 203 204 227 255
392 368 -735.683 197 201 227 255
392 372 -729.258 198 203 229 255
392 376 -616.438 177 187 219 255
392 380 -747.826 201 205 230 255
392 384 -686.957 194 202 230 255
392 388 -640.351 187 201 228 255
392 392 -543.379 169 195 219 255
392 396 -394.872 136 171 195 255
392 400 -431.818 126 160 176 255
392 404 -632.432 151 165 185 255
392 408 -705.584 168 176 197 255
396 276 -596.244 170 198 213 255
396 280 -654.008 196 213 237 255
396 284 -502.183 172 199 229 255
396 288 -677.966 198 211 236 255
396 292 -424.779 161 195 226 255
396 296 -351.852 146 185 216 255
396 300 -361.502 145 189 213 255
396 304 -360.406 134 177 197 255
396 308 -514.563 156 185 206 255
396 312 -633.508 156 167 191 255
396 340 -736.527 145 153 167 255
396 344 -803.738 194 193 214 255
396 348 -765.258 189 188 213 255
396 352 -705.882 180 174 204 255
396 356 -800.866 208 210 231 255
396 360 -910.204 239 234 245 255
396 364 -893.004 234 230 243 255
396 368 -750 203 209 232 255
396 372 -721.739 198 207 230 255
396 376 -704.348 196 204 230 255
396 380 -781.513 212 216 238 255
396 384 -779.661 210 213 236 255
396 388 -591.111 179 192 225 255
396 392 -619.469 183 193 226 255
396 396 -527.778 165 184 216 255
396 400 -408.163 138 177 196 255
396 404 -540.984 141 165 183 255
396 408 -534.884 132 148 172 255
396 632 -724.138 150 158 174 255
396 748 -672.316 148 154 177 255
400 56 -847.953 171 158 164 255
400 276 -560.694 135 158 173 255
400 280 -513.761 165 199 218 255
400 284 -388.35 143 179 206 255
400 288 -668.122 191 206 229 255
400 292 -352.113 144 195 213 255
400 296 -255.102 123 177 196 255
400 300 -427.083 137 174 192 255
400 304 -352.273 119 155 176 255
400 308 -766.816 197 203 223 255
400 312 -791.855 198 201 221 255
400 316 -568.182 138 152 176 255
400 324 -597.633 135 146 169 255
400 328 -734.94 146 144 166 255
400 344 -759.563 161 164 183 255
400 348 -742.574 179 176 202 255
400 352 -766.355 192 189 214 255
400 356 -661.836 172 180 207 255
400 360 -744.292 191 193 219 255
400 364 -778.761 201 202 226 255
400 368 -668.161 186 195 223 255
400 372 -877.049 229 231 244 255
400 376 -842.324 222 223 241 255
400 380 -850.622 225 223 241 255
400 384 -894.309 240 233 246 255
400 388 -836.91 219 214 233 255
400 392 -657.658 184 186 222 255
400 396 -536.364 169 184 220 255
400 400 -368.932 141 179 206 255
400 404 -423.913 131 166 184 255
400 408 -619.565 149 160 184 255
400 412 -720 185 172 200 255
400 416 -707.602 151 146 171 255
400 576 -680.751 179 191 213 255
400 580 -632.653 160 171 196 255
400 736 -738.318 186 197 214 255
400 740 -721.154 179 187 208 255
400 748 -633.136 138 148 169 255
404 56 -864.734 207 193 202 255
404 60 -860.76 158 147 152 255
404 288 -816.425 188 195 207 255
404 292 -698.492 169 185 199 255
404 296 -606.742 143 164 178 255
404 308 -602.273 141 153 176 255
404 320 -656.805 140 148 169 255
404 324 -735.45 164 170 189 255
404 348 -740.113 163 154 177 255
404 352 -733.333 181 169 195 255
404 356 -780 189 178 200 255
404 360 -780.822 204 195 219 255
404 364 -828.326 213 215 233 255
404 368 -623.318 181 197 223 255
404 372 -648.069 192 207 233 255
404 376 -738.397 206 212 237 255
404 380 -911.647 240 238 249 255
404 384 -1000 255 255 255 255
404 388 -959.677 247 243 248 255
404 392 -829.06 221 214 234 255
404 396 -770.213 208 211 235 255
404 400 -715.517 199 210 232 255
404 404 -724.771 188 199 218 255
404 408 -811.659 204 202 223 255
404 412 -918.033 244 234 244 255
404 416 -800.948 199 190 211 255
404 420 -715.976 146 145 169 255
404 428 -608.466 152 162 189 255
404 576 -625 156 167 192 255
404 740 -678.756 162 173 193 255
404 744 -511.364 133 145 176 255
408 16 -593.407 145 163 182 255
408 288 -871.795 150 146 156 255
408 296 -777.778 176 176 198 255
408 320 -779.141 145 146 163 255
408 340 -783.784 165 165 185 255
408 344 -720.67 154 157 179 255
408 352 -634.286 160 143 175 255
408 356 -770.833 184 170 192 255
408 360 -750 185 175 200 255
408 364 -563.452 154 171 197 255
408 368 -408.867 143 177 203 255
408 372 -354.545 149 189 220 255
408 376 -559.471 177 193 227 255
408 380 -868.313 231 227 243 255
408 384 -952 248 244 250 255
408 388 -893.443 237 231 244 255
408 392 -894.309 238 233 246 255
408 396 -838.983 218 217 236 255
408 400 -690.266 191 202 226 255
408 404 -669.725 182 195 218 255
408 408 -784.753 199 199 223 255
408 412 -773.756 200 196 221 255
408 416 -742.857 184 183 210 255
408 420 -651.282 161 169 195 255
408 428 -696.97 168 175 198 255
408 464 -689.32 174 184 206 255
412 20 -765.432 162 143 148 255
412 24 -745.856 181 158 160 255
412 208 -767.196 189 167 171 255
412 340 -624.309 147 159 181 255
412 352 -693.78 186 177 209 255
412 356 -728.155 178 181 206 255
412 360 -684.783 155 161 184 255
412 368 -312.169 124 167 189 255
412 372 -238.095 130 181 210 255
412 376 -419.355 154 180 217 255
412 380 -724.444 202 194 225 255
412 384 -784.483 213 207 232 255
412 388 -710.407 191 189 221 255
412 392 -711.712 190 193 222 255
412 396 -703.704 187 184 216 255
412 400 -620.37 175 185 216 255
412 404 -698.63 186 194 219 255
412 408 -761.062 199 203 226 255
412 412 -644.231 171 181 208 255
412 416 -592.04 160 170 201 255
412 420 -829.787 215 218 235 255
412 424 -578.947 150 165 190 255
412 440 -643.678 143 154 174 255
412 464 -689.498 185 199 219 255
412 468 -648.241 164 177 199 255
412 580 -784.431 149 150 167 255
412 656 -516.129 141 159 186 255
412 720 -660 166 181 200 255
412 724 -719.807 178 187 207 255
412 776 -653.061 162 176 196 255
416 44 -782.178 202 180 183 255
416 240 -693.122 160 172 189 255
416 352 -833.333 215 209 228 255
416 356 -747.664 187 191 214 255
416 360 -614.973 151 160 187 255
416 364 -484.211 141 163 190 255
416 368 -502.488 151 181 201 255
416 372 -370.558 135 174 197 255
416 376 -650.655 189 204 229 255
416 380 -685.589 193 198 229 255
416 384 -634.703 179 188 219 255
416 388 -584.906 168 176 212 255
416 392 -680 189 193 225 255
416 396 -731.482 190 187 216 255
416 400 -753.425 192 193 219 255
416 404 -812.766 213 216 235 255
416 408 -726.027 189 191 219 255
416 412 -695.431 168 167 197 255
416 416 -537.634 143 154 186 255
416 420 -768.889 199 200 225 255
416 424 -714.286 150 156 175 255
416 468 -746.193 172 174 197 255
416 520 -719.101 153 160 178 255
416 656 -515.151 150 173 198 255
416 660 -490 149 169 200 255
416 664 -596.33 174 188 218 255
416 668 -538.462 150 161 195 255
416 724 -625.731 139 152 171 255
420 212 -678.392 167 181 199 255
420 320 -821.782 184 185 202 255
420 324 -778.894 177 181 199 255
420 332 -723.404 162 169 188 255
420 352 -787.44 189 185 207 255
420 356 -600 136 144 170 255
420 364 -587.94 158 173 199 255
420 368 -645.32 167 180 203 255
420 372 -426.966 127 155 178 255
420 376 -663.551 178 196 214 255
420 380 -695.238 178 189 210 255
420 384 -598.039 163 179 204 255
420 388 -682.051 164 170 195 255
420 392 -737.864 179 179 206 255
420 396 -770 186 177 200 255
420 400 -678.392 167 171 199 255
420 404 -721.973 192 195 223 255
420 408 -798.246 209 205 228 255
420 412 -742.857 189 183 210 255
420 416 -620.112 151 145 179 255
420 420 -610.256 159 157 195 255
420 424 -730.994 150 148 171 255
420 436 -861.272 172 161 173 255
420 460 -682.051 164 174 195 255
420 492 -739.13 160 165 184 255
420 576 -739.13 184 160 169 255
420 580 -760 175 155 154 255
420 660 -605.381 179 195 223 255
420 664 -936 246 242 250 255
420 668 -866.109 223 224 239 255
420 672 -554.348 143 151 184 255
420 740 -878.049 156 154 164 255
424 176 -661.692 201 170 167 255
424 332 -528.09 136 143 178 255
424 336 -595.506 142 151 178 255
424 364 -648.241 164 169 199 255
424 368 -650.273 151 157 183 255
424 372 -683.06 154 163 183 255
424 376 -541.177 131 154 170 255
424 380 -693.182 149 155 176 255
424 384 -748.634 160 167 183 255
424 388 -810.056 171 162 179 255
424 392 -734.043 181 163 188 255
424 396 -730 196 173 200 255
424 400 -742.574 181 176 202 255
424 404 -855.932 222 219 236 255
424 408 -901.235 232 231 243 255
424 412 -727.7 184 188 213 255
424 416 -714.286 174 174 203 255
424 420 -621.622 150 153 185 255
424 424 -718.75 165 166 192 255
424 432 -900 160 152 160 255
424 436 -872.146 219 205 213 255
424 440 -813.953 156 158 172 255
424 444 -819.82 202 205 222 255
424 460 -780.822 195 200 219 255
424 636 -787.879 198 177 189 255
424 660 -507.246 156 177 207 255
424 664 -850.622 223 225 241 255
424 668 -741.935 189 196 217 255
428 116 -797.101 207 186 191 255
428 120 -788.82 147 144 161 255
428 124 -739.583 167 172 192 255
428 172 -837.563 185 181 197 255
428 176 -849.057 212 196 206 255
428 268 -613.861 163 177 202 255
428 320 -600 152 168 190 255
428 336 -693.989 155 163 183 255
428 360 -605.911 163 175 203 255
428 364 -857.143 226 221 238 255
428 368 -702.97 172 176 202 255
428 372 -745.856 159 158 181 255
428 376 -739.645 147 147 169 255
428 380 -780 183 178 200 255
428 384 -800 175 162 180 255
428 388 -704.918 183 156 174 255
428 392 -793.427 213 191 207 255
428 396 -801.724 232 209 223 255
428 400 -760 200 176 199 255
428 404 -733.333 192 182 210 255
428 408 -751.152 190 191 217 255
428 412 -741.627 182 184 209 255
428 416 -814.978 206 207 227 255
428 420 -714.286 163 162 189 255
428 460 -787.611 202 209 226 255
428 508 -842.697 170 164 178 255
428 568 -685.393 150 158 178 255
428 660 -505.618 134 142 178 255
428 664 -446.154 141 160 195 255
432 48 -730.061 141 148 163 255
432 116 -813.953 158 156 172 255
432 124 -738.636 153 159 176 255
432 172 -824.561 156 158 171 255
432 268 -315.508 123 160 187 255
432 272 -381.215 125 144 181 255
432 348 -562.842 143 159 183 255
432 360 -666.667 160 168 192 255
432 364 -796.296 196 194 216 255
432 368 -770.492 165 162 183 255
432 376 -775.401 179 166 187 255
432 380 -785.366 197 183 205 255
432 384 -744.681 188 164 185 255
432 388 -740.385 208 181 199 255
432 392 -720.165 243 209 218 255
432 396 -778.656 253 225 229 255
432 400 -666.667 240 200 212 255
432 404 -679.245 212 178 204 255
432 408 -750 191 189 216 255
432 412 -855.932 219 219 236 255
432 416 -827.586 212 212 232 255
432 420 -726.316 165 164 190 255
432 512 -714.286 175 150 154 255
432 632 -724.138 150 154 174 255
432 712 -830.846 201 184 194 255
432 716 -744.493 227 200 198 255
436 152 -908.497 153 146 152 255
436 156 -747.368 183 166 190 255
436 160 -763.441 164 165 186 255
436 164 -617.021 152 172 188 255
436 168 -762.162 163 178 185 255
436 264 -528.796 146 163 191 255
436 268 -611.111 174 187 216 255
436 272 -661.836 172 177 207 255
436 284 -365.591 127 157 186 255
436 336 -593.407 145 153 182 255
436 340 -722.222 186 194 216 255
436 344 -600 160 173 200 255
436 348 -635.294 139 148 170 255
436 360 -793.939 161 148 165 255
436 364 -731.844 163 155 179 255
436 368 -755.319 182 165 188 255
436 372 -768.786 173 153 170 255
436 376 -794.872 195 175 187 255
436 380 -811.881 202 183 202 255
436 384 -793.103 200 182 203 255
436 388 -851.24 242 224 235 255
436 392 -874.016 254 238 240 255
436 396 -945.098 255 250 248 255
436 400 -842.52 254 235 234 255
436 404 -669.492 236 197 214 255
436 408 -854.701 231 217 234 255
436 412 -884.298 234 228 242 255
436 416 -901.639 238 232 244 255
436 420 -798.077 203 187 208 255
436 424 -714.286 175 150 168 255
436 432 -739.13 161 140 153 255
436 492 -805.714 158 160 175 255
436 508 -765.258 213 188 189 255
436 512 -705.882 204 177 174 255
436 520 -705.263 190 162 167 255
436 524 -800 160 144 146 255
436 536 -659.091 146 158 176 255
436 560 -607.143 135 150 168 255
440 152 -769.634 182 169 191 255
440 156 -805.556 213 195 216 255
440 160 -770.335 200 185 209 255
440 164 -690 169 169 200 255
440 168 -454.545 144 177 198 255
440 172 -454.545 128 167 176 255
440 256 -672.897 179 194 214 255
440 260 -403.846 146 180 208 255
440 264 -570.093 168 183 214 255
440 268 -909.836 234 233 244 255
440 272 -894.309 238 233 246 255
440 276 -683.168 170 179 202 255
440 300 -688.889 152 162 180 255
440 308 -687.5 162 172 192 255
440 332 -764.706 195 202 221 255
440 336 -671.498 173 180 207 255
440 340 -549.451 141 157 182 255
440 368 -779.07 162 153 172 255
440 380 -824.561 163 156 171 255
440 384 -811.321 198 192 212 255
440 388 -728.814 236 204 222 255
440 392 -777.778 252 224 229 255
440 396 -898.039 255 244 242 255
440 400 -776.892 251 223 224 255
440 404 -686.441 236 199 214 255
440 408 -795.349 209 193 215 255
440 412 -809.524 190 190 210 255
440 416 -851.852 200 200 216 255
440 480 -696.682 179 190 211 255
440 484 -659.574 156 165 188 255
440 492 -696.335 162 171 191 255
440 576 -600 136 151 170 255
444 148 -794.595 171 166 185 255
444 152 -824.885 217 198 215 255
444 156 -837.398 246 226 237 255
444 160 -818.93 243 221 232 255
444 164 -722.222 216 186 210 255
444 168 -570 157 169 200 255
444 172 -274.611 123 170 193 255
444 212 -689.119 163 170 193 255
444 264 -487.685 151 168 203 255
444 268 -858.333 223 225 240 255
444 272 -856.54 224 220 237 255
444 276 -570.681 150 166 191 255
444 336 -710.983 148 150 173 255
444 380 -754.011 165 164 187 255
444 384 -854.077 219 216 233 255
444 388 -780.952 207 187 210 255
444 392 -586.207 232 184 196 255
444 396 -677.686 242 203 207 255
444 400 -655.172 232 192 202 255
444 404 -703.349 209 178 193 255
444 408 -817.143 160 159 175 255
444 412 -736.527 145 148 167 255
448 108 -720 172 180 200 255
448 140 -871.795 146 156 154 255
448 144 -755.102 172 174 196 255
448 148 -788.991 196 195 218 255
448 152 -840.336 238 219 237 255
448 156 -960.784 255 250 252 255
448 160 -976.471 255 252 253 255
448 164 -817.427 241 219 229 255
448 168 -736.585 189 178 205 255
448 172 -556.65 158 175 203 255
448 176 -606.742 143 172 178 255
448 212 -697.917 163 174 192 255
448 268 -616.162 160 171 198 255
448 272 -575.13 152 165 193 255
448 284 -698.63 186 200 219 255
448 288 -595.506 142 163 178 255
448 376 -757.225 156 152 173 255
448 380 -679.144 157 169 187 255
448 384 -827.273 201 201 220 255
448 388 -736.041 180 171 197 255
448 392 -714.286 182 156 178 255
448 396 -701.923 208 177 192 255
448 400 -816.514 218 198 216 255
448 404 -820.896 191 183 201 255
448 408 -763.314 149 153 169 255
452 144 -701.493 171 184 201 255
452 148 -720.93 185 188 215 255
452 152 -792.208 231 207 228 255
452 156 -921.569 255 245 248 255
452 160 -920.949 253 243 246 255
452 164 -781.513 238 212 224 255
452 168 -736.041 186 171 197 255
452 172 -426.966 127 155 178 255
452 384 -653.631 148 152 179 255
452 388 -775.61 183 182 205 255
452 392 -795.918 180 176 196 255
452 396 -835.052 191 178 194 255
452 400 -843.575 166 165 179 255
452 408 -827.161 148 152 162 255
456 144 -655.914 154 174 186 255
456 148 -587.94 158 170 199 255
456 152 -729.469 204 179 207 255
456 156 -755.274 237 208 222 255
456 160 -772.926 229 203 218 255
456 164 -702.97 202 172 197 255
456 168 -648.352 150 166 182 255
456 368 -778.947 169 172 190 255
456 376 -651.163 142 151 172 255
456 384 -649.718 146 150 177 255
456 388 -882.845 228 225 239 255
456 392 -843.478 220 212 230 255
456 396 -810.056 179 162 176 255
456 436 -644.97 139 151 169 255
456 472 -760.766 184 191 209 255
460 64 -463.687 131 154 179 255
460 68 -623.656 151 163 186 255
460 148 -725.888 170 177 197 255
460 152 -712.871 174 173 202 255
460 156 -746.341 193 179 205 255
460 160 -733.99 186 176 203 255
460 164 -704.545 150 150 176 255
460 368 -674.419 144 152 172 255
460 380 -666.667 145 146 174 255
460 384 -698.324 152 153 179 255
460 388 -730.57 167 171 193 255
460 392 -795.918 181 176 196 255
460 396 -751.412 177 155 165 255
460 624 -611.765 137 150 170 255
464 64 -525.773 148 169 194 255
464 68 -770 177 179 200 255
464 148 -678.161 146 161 174 255
464 152 -564.246 140 164 179 255
464 156 -772.727 156 164 176 255
464 160 -619.565 149 166 184 255
464 368 -702.97 172 180 202 255
464 380 -745.098 178 180 204 255
464 384 -781.095 179 180 201 255
464 432 -677.778 151 160 180 255
464 444 -514.124 134 148 177 255
464 620 -786.517 159 162 178 255
468 60 -533.679 148 168 193 255
468 64 -826.087 210 213 230 255
468 68 -846.154 200 192 208 255
468 148 -830.189 194 194 212 255
468 152 -795.349 193 200 215 255
468 156 -878.049 154 157 164 255
468 264 -821.277 214 217 235 255
468 268 -566.667 141 157 180 255
468 328 -611.429 141 153 175 255
468 376 -728.155 178 183 206 255
468 380 -701.357 188 193 221 255
468 440 -547.368 147 161 190 255
468 508 -691.542 170 182 201 255
472 64 -783.784 198 202 222 255
472 68 -803.279 172 165 183 255
472 152 -689.655 147 154 174 255
472 264 -556.757 144 159 185 255
472 372 -688.172 157 157 186 255
472 376 -698.324 152 154 179 255
472 380 -687.805 173 177 205 255
472 384 -589.189 147 153 185 255
472 388 -675.393 160 168 191 255
472 392 -722.543 149 156 173 255
472 440 -704.036 190 201 223 255
472 444 -810.811 201 201 222 255
472 700 -486.034 179 141 133 255
472 756 -609.467 136 150 169 255
476 0 -712.575 143 146 167 255
476 240 -815.951 163 148 155 255
476 244 -731.959 194 168 171 255
476 368 -642.512 170 183 207 255
476 372 -814.978 206 207 227 255
476 436 -534.653 155 170 202 255
476 440 -892.116 228 228 241 255
476 444 -847.458 218 219 236 255
476 448 -454.545 128 151 176 255
476 696 -635.417 192 161 157 255
476 700 -813.765 247 224 227 255
476 704 -680.365 219 187 184 255
480 68 -600 136 147 170 255
480 240 -862.069 174 162 170 255
480 244 -800 230 207 210 255
480 280 -772.926 203 207 229 255
480 284 -810 185 181 200 255
480 288 -832.461 191 175 191 255
480 292 -814.433 189 176 194 255
480 368 -637.306 158 167 193 255
480 372 -695.431 167 172 197 255
480 416 -837.209 160 158 172 255
480 424 -614.583 192 160 155 255
480 436 -562.5 150 162 192 255
480 440 -669.725 182 193 218 255
480 444 -584.699 145 157 183 255
480 484 -674.641 175 190 209 255
480 688 -778.947 169 178 190 255
480 696 -657.459 181 157 150 255
480 700 -799.163 239 215 216 255
480 704 -647.059 204 172 168 255
484 92 -763.441 164 170 186 255
484 100 -647.059 140 148 170 255
484 104 -653.179 143 152 173 255
484 152 -668.449 156 170 187 255
484 280 -801.105 164 163 181 255
484 284 -888.325 197 186 196 255
484 288 -746.988 150 145 166 255
484 292 -727.749 175 165 191 255
484 296 -739.13 194 180 207 255
484 300 -735.45 172 164 189 255
484 304 -708.543 170 174 199 255
484 416 -803.922 184 184 204 255
484 420 -771.69 219 194 201 255
484 424 -725 240 211 207 255
484 436 -559.322 138 145 177 255
484 440 -571.429 143 154 182 255
484 616 -460.674 130 150 178 255
484 620 -648.148 178 188 216 255
488 284 -712.644 149 156 174 255
488 288 -709.845 165 167 193 255
488 292 -819.005 211 201 221 255
488 296 -904.382 251 239 247 255
488 300 -824.885 207 198 217 255
488 304 -744.444 157 157 180 255
488 412 -770.115 154 155 174 255
488 420 -750 184 161 177 255
488 452 -792.208 207 211 231 255
488 456 -767.442 190 199 215 255
488 472 -571.429 143 159 182 255
488 476 -595.628 146 162 183 255
488 620 -776.786 199 202 224 255
492 40 -761.364 176 156 155 255
492 248 -597.633 135 147 169 255
492 288 -654.054 153 157 185 255
492 292 -807.692 195 188 208 255
492 296 -889.362 235 222 235 255
492 300 -813.953 202 195 215 255
492 304 -694.118 146 144 170 255
492 380 -707.602 146 151 171 255
492 388 -674.699 139 146 166 255
492 440 -722.892 143 146 166 255
492 444 -610.811 149 158 185 255
492 452 -759.259 190 193 216 255
492 456 -581.395 136 147 172 255
492 484 -687.5 162 168 192 255
492 620 -516.484 138 152 182 255
496 296 -759.563 170 161 183 255
496 300 -786.802 176 176 197 255
496 304 -701.149 148 154 174 255
496 412 -766.667 159 162 180 255
496 424 -823.899 148 145 159 255
496 484 -721.393 173 178 201 255
496 488 -765.306 173 175 196 255
496 492 -834.32 158 155 169 255
500 212 -696.97 168 179 198 255
500 216 -613.636 142 157 176 255
500 220 -623.656 151 161 186 255
500 484 -731.844 155 163 179 255
500 488 -835.749 193 190 207 255
500 492 -866.667 176 168 180 255
500 532 -720.43 160 172 186 255
500 696 -723.404 162 165 188 255
500 700 -712.963 185 193 216 255
504 208 -837.5 160 147 159 255
504 440 -637.363 149 162 182 255
504 492 -686.275 204 173 172 255
504 496 -573.46 211 170 166 255
508 204 -853.933 178 165 168 255
508 208 -798.883 179 161 170 255
508 492 -766.234 231 205 204 255
508 496 -866.142 254 237 238 255
508 500 -626.794 209 175 170 255
508 668 -562.842 183 149 143 255
512 236 -698.795 141 145 166 255
512 404 -641.026 160 176 195 255
512 492 -742.857 210 183 186 255
512 496 -715.517 232 200 199 255
512 552 -854.369 206 191 197 255
512 668 -572.917 192 162 151 255
512 672 -502.762 181 147 136 255
512 696 -780.105 170 170 191 255
512 700 -733.333 169 175 195 255
516 180 -649.484 160 172 194 255
516 492 -847.716 195 182 197 255
516 496 -699.422 173 147 153 255
516 696 -663.158 158 169 190 255
516 700 -600 136 152 170 255
520 140 -633.136 138 149 169 255
520 248 -664.671 139 147 167 255
520 320 -732.673 202 175 178 255
520 368 -589.744 155 168 195 255
520 388 -640.212 155 173 189 255
520 408 -684.729 171 181 203 255
520 540 -718.447 177 187 206 255
520 548 -788.82 144 145 161 255
520 596 -691.489 159 172 188 255
524 32 -811.518 173 175 191 255
524 240 -801.242 151 145 161 255
524 272 -674.699 139 148 166 255
524 320 -830.189 212 194 201 255
524 368 -695.238 178 191 210 255
524 448 -628.571 171 176 210 255
528 344 -715.736 169 178 197 255
528 416 -582.418 144 150 182 255
528 444 -620.513 158 168 195 255
528 448 -848.74 220 222 238 255
528 452 -521.739 140 158 184 255
528 456 -609.195 140 152 174 255
532 276 -778.947 190 169 171 255
532 280 -738.636 176 154 153 255
532 332 -627.66 153 166 188 255
532 488 -803.681 147 148 163 255
532 492 -828.283 183 181 198 255
532 624 -702.381 168 143 145 255
536 232 -439.153 136 157 189 255
536 328 -550.802 145 164 187 255
536 396 -736.041 171 177 197 255
536 400 -770.492 162 166 183 255
536 420 -780.488 149 146 164 255
536 492 -812.155 164 165 181 255
540 228 -336.898 125 152 187 255
540 232 -884.774 229 230 243 255
540 236 -778.761 201 208 226 255
540 300 -609.756 165 183 205 255
540 312 -621.302 137 144 169 255
540 316 -700.935 182 193 214 255
540 320 -604.396 146 158 182 255
540 324 -522.222 137 155 180 255
540 328 -612.245 158 174 196 255
540 380 -792.683 147 151 164 255
540 396 -670.455 147 154 176 255
540 500 -760 154 158 175 255
540 548 -748.792 207 181 184 255
540 552 -792.531 241 216 216 255
540 716 -702.381 143 151 168 255
540 720 -771.084 147 152 166 255
540 772 -615.819 143 161 177 255
544 228 -446.809 136 160 188 255
544 232 -714.286 192 201 224 255
544 236 -729.469 179 183 207 255
544 280 -657.459 181 153 150 255
544 284 -753.695 203 178 189 255
544 312 -672.131 153 160 183 255
544 320 -798.995 181 179 199 255
544 548 -604.278 187 161 150 255
544 552 -567.308 208 174 163 255
544 748 -793.103 156 160 174 255
548 232 -697.248 185 197 218 255
548 236 -782.805 197 203 221 255
548 360 -659.091 146 156 176 255
548 472 -764.706 150 155 170 255
552 80 -701.149 148 154 174 255
552 84 -630.435 150 164 184 255
552 232 -626.263 161 176 198 255
552 256 -653.061 162 180 196 255
552 520 -740.113 154 161 177 255
552 684 -701.031 165 178 194 255
556 196 -674.157 149 159 178 255
556 220 -790.698 154 156 172 255
556 268 -628.415 149 166 183 255
556 612 -654.822 197 168 163 255
556 648 -686.869 167 180 198 255
560 164 -714.286 144 152 168 255
560 196 -772.727 156 159 176 255
560 436 -602.21 145 162 181 255
560 492 -789.474 209 187 191 255
560 496 -750 168 147 148 255
568 412 -616.279 139 148 172 255
572 256 -711.628 184 195 215 255
572 260 -647.668 159 171 193 255
572 412 -789.474 204 212 228 255
572 416 -744.898 171 180 196 255
576 28 -636.364 144 157 176 255
576 332 -801.242 145 146 161 255
576 348 -469.613 133 152 181 255
576 352 -619.565 149 157 184 255
576 692 -659.574 156 171 188 255
580 28 -791.209 163 166 182 255
580 156 -660 166 183 200 255
580 200 -759.563 161 165 183 255
580 308 -737.143 175 152 156 255
580 312 -728.972 214 185 193 255
580 320 -822.222 172 164 180 255
580 324 -872.727 217 206 220 255
580 328 -828.571 210 192 195 255
580 348 -739.91 194 203 223 255
580 352 -808.696 208 211 230 255
580 476 -730.337 154 158 178 255
580 692 -671.958 158 171 189 255
584 68 -702.857 175 149 149 255
584 72 -693.878 196 168 166 255
584 108 -672.316 148 161 177 255
584 196 -514.124 134 154 177 255
584 308 -794.595 185 166 170 255
584 312 -795.745 235 211 214 255
584 316 -738.636 176 153 160 255
584 320 -860.465 215 200 208 255
584 324 -858.586 195 184 198 255
584 348 -702.326 183 194 215 255
584 352 -698.113 180 187 212 255
584 356 -595.376 138 150 173 255
584 536 -668.508 181 153 151 255
584 724 -717.277 191 164 165 255
584 788 -702.381 143 151 168 255
588 56 -773.756 221 198 196 255
588 324 -773.81 149 149 168 255
588 672 -650 200 169 165 255
588 716 -798.077 208 187 191 255
588 720 -779.07 172 153 154 255
588 724 -826.087 230 210 215 255
588 728 -760.87 184 163 162 255
592 204 -682.692 175 190 208 255
592 268 -712.575 143 149 167 255
592 468 -827.161 148 150 162 255
596 120 -604.651 138 148 172 255
596 156 -540.23 134 149 174 255
596 160 -661.692 167 176 201 255
596 164 -645.455 181 199 220 255
596 168 -252.525 124 167 198 255
596 172 -30.9279 100 160 194 255
596 176 -111.111 110 159 198 255
596 184 -104.478 111 161 201 255
596 188 -193.548 111 157 186 255
596 204 -511.111 136 152 180 255
596 244 -704.762 179 191 210 255
596 492 -672.316 177 151 148 255
600 96 -709.302 147 151 172 255
600 100 -714.286 156 165 182 255
600 116 -558.974 152 168 195 255
600 120 -726.027 189 199 219 255
600 124 -615.385 147 159 182 255
600 152 -636.364 162 175 198 255
600 156 -548.387 144 158 186 255
600 160 -640.553 178 193 217 255
600 164 -421.569 145 173 204 255
600 168 -220 122 167 200 255
600 172 -452.915 162 193 223 255
600 176 -493.333 168 194 225 255
600 180 -307.692 136 169 208 255
600 184 -689.655 196 208 232 255
600 188 -640.351 187 205 228 255
600 256 -362.637 124 146 182 255
600 260 -394.595 129 149 185 255
600 456 -593.583 149 160 187 255
